ply
format ascii 1.0
element vertex 1169
property float x
property float y
property float z
property uchar red
property uchar green
property uchar blue
end_header
440.0 292.0 0.7624308649021244 171 171 171
442.0 292.0 0.7628287130994071 167 167 167
444.0 292.0 0.7629872636684975 163 163 163
446.0 292.0 0.762641081671697 158 158 158
448.0 292.0 0.7620735630536988 156 156 156
450.0 292.0 0.7603627145192022 157 157 157
452.0 292.0 0.7604887959297663 149 149 149
454.0 292.0 0.7621579936270304 140 140 140
456.0 292.0 0.7616937355349009 133 133 133
458.0 292.0 0.7636022616119671 124 124 124
460.0 292.0 0.7661009506889542 116 116 116
462.0 292.0 0.7719789526846428 106 106 106
464.0 292.0 0.7736636208648028 88 88 88
466.0 292.0 0.7727024261429108 61 61 61
468.0 292.0 0.7704737918814785 28 28 28
120.0 294.0 0.6855463992339594 11 11 11
122.0 294.0 0.6876527806835675 13 13 13
124.0 294.0 0.6889364933526468 14 14 14
126.0 294.0 0.6897483965660449 19 19 19
128.0 294.0 0.69015445487274 25 25 25
130.0 294.0 0.6907588439915351 29 29 29
132.0 294.0 0.6909278122591967 31 31 31
134.0 294.0 0.6912997514620365 38 38 38
136.0 294.0 0.6914109720844958 40 40 40
138.0 294.0 0.6910851169185716 38 38 38
140.0 294.0 0.6912382308537608 40 40 40
142.0 294.0 0.6906217479195793 42 42 42
144.0 294.0 0.6906488463303455 45 45 45
146.0 294.0 0.6896836922933788 42 42 42
148.0 294.0 0.689680348051525 48 48 48
150.0 294.0 0.6891794568059242 45 45 45
152.0 294.0 0.6885096673826974 46 46 46
154.0 294.0 0.6886295765031688 48 48 48
156.0 294.0 0.6885827994061077 49 49 49
158.0 294.0 0.6894147359975794 52 52 52
160.0 294.0 0.6915566793397301 47 47 47
162.0 294.0 0.6951850809263339 48 48 48
164.0 294.0 0.7048127565954196 51 51 51
166.0 294.0 0.7559473268134985 51 51 51
168.0 294.0 0.7184124779120769 51 51 51
170.0 294.0 0.6852912325358229 53 53 53
172.0 294.0 0.6664639085243799 52 52 52
174.0 294.0 0.652466920503475 56 56 56
176.0 294.0 0.6408391616104551 54 54 54
178.0 294.0 0.6306496226719793 51 51 51
180.0 294.0 0.6213461407474636 57 57 57
182.0 294.0 0.6124294680304309 54 54 54
184.0 294.0 0.603880187202846 53 53 53
186.0 294.0 0.5955899992833011 51 51 51
188.0 294.0 0.5876942195723415 50 50 50
190.0 294.0 0.5802024696948821 49 49 49
192.0 294.0 0.5728514717835923 51 51 51
194.0 294.0 0.5659893599020653 50 50 50
196.0 294.0 0.5591538398133522 52 52 52
198.0 294.0 0.553388891908928 53 53 53
200.0 294.0 0.5473902746292064 50 50 50
202.0 294.0 0.5408773094091232 51 51 51
204.0 294.0 0.5356881938063385 53 53 53
206.0 294.0 0.5296681660749514 54 54 54
208.0 294.0 0.5233624196576104 55 55 55
210.0 294.0 0.5175926570297185 55 55 55
212.0 294.0 0.5104260661652777 53 53 53
214.0 294.0 0.5036610785229113 52 52 52
216.0 294.0 0.4959411777374357 50 50 50
218.0 294.0 0.48652759328088707 47 47 47
220.0 294.0 0.47677699719111877 46 46 46
222.0 294.0 0.4656751046642985 45 45 45
224.0 294.0 0.4515338681472046 46 46 46
226.0 294.0 0.4355439402375595 43 43 43
228.0 294.0 0.4100033749238419 43 43 43
230.0 294.0 0.37712332618531846 45 45 45
232.0 294.0 0.32692250681772256 45 45 45
234.0 294.0 0.23172282566116098 44 44 44
236.0 294.0 0.17040859298077554 47 47 47
238.0 294.0 0.19229165239559834 46 46 46
240.0 294.0 0.26596364382947546 42 42 42
242.0 294.0 0.3568802419241872 44 44 44
244.0 294.0 0.41151027447364547 46 46 46
246.0 294.0 0.4545473269002636 43 43 43
248.0 294.0 0.48382705392106073 40 40 40
250.0 294.0 0.5017566160015148 42 42 42
252.0 294.0 0.5157938703883517 45 45 45
254.0 294.0 0.5261621079099789 40 40 40
256.0 294.0 0.5348194388427562 38 38 38
258.0 294.0 0.5416383015613279 39 39 39
260.0 294.0 0.5470676626627055 42 42 42
262.0 294.0 0.5518207273093043 44 44 44
264.0 294.0 0.5558269913244412 46 46 46
266.0 294.0 0.5592446978565498 44 44 44
268.0 294.0 0.5624923264858313 43 43 43
270.0 294.0 0.56532257013608 44 44 44
272.0 294.0 0.5680311571441284 50 50 50
274.0 294.0 0.5702255814681605 50 50 50
276.0 294.0 0.5727638980601177 46 46 46
278.0 294.0 0.5753287165431394 48 48 48
280.0 294.0 0.577802264721128 50 50 50
282.0 294.0 0.580560936764364 52 52 52
284.0 294.0 0.5836350802732063 53 53 53
286.0 294.0 0.5865063521773829 53 53 53
288.0 294.0 0.5900811260798912 51 51 51
290.0 294.0 0.5933904199943827 54 54 54
292.0 294.0 0.5972038721124269 54 54 54
294.0 294.0 0.6010775411061916 55 55 55
296.0 294.0 0.6051748612222932 48 48 48
298.0 294.0 0.6092887677192382 49 49 49
300.0 294.0 0.6134315014653029 49 49 49
302.0 294.0 0.617596450245334 45 45 45
304.0 294.0 0.6218583337319981 46 46 46
306.0 294.0 0.6261635837094742 42 42 42
308.0 294.0 0.6302895141854206 42 42 42
310.0 294.0 0.6341961417590166 45 45 45
312.0 294.0 0.6380970068447835 49 49 49
314.0 294.0 0.6417900121405967 59 59 59
316.0 294.0 0.6454841155534808 69 69 69
318.0 294.0 0.64912399523146 96 96 96
320.0 294.0 0.6527277423686775 102 102 102
322.0 294.0 0.6562828100179273 117 117 117
324.0 294.0 0.659827316855533 131 131 131
326.0 294.0 0.6633728686602787 136 136 136
328.0 294.0 0.66685282431572 146 146 146
330.0 294.0 0.6702871680518433 149 149 149
332.0 294.0 0.6738179649245358 152 152 152
334.0 294.0 0.6773465565199079 157 157 157
336.0 294.0 0.6806438156133677 156 156 156
338.0 294.0 0.6841312926794019 151 151 151
340.0 294.0 0.6877159839556667 148 148 148
342.0 294.0 0.691222285728881 142 142 142
344.0 294.0 0.6947498039582606 146 146 146
346.0 294.0 0.6984908679201316 137 137 137
348.0 294.0 0.7022380518296527 131 131 131
350.0 294.0 0.7061700022186752 125 125 125
352.0 294.0 0.7099101057641868 115 115 115
354.0 294.0 0.713837253655459 112 112 112
356.0 294.0 0.7175724794760621 100 100 100
358.0 294.0 0.7213071728614097 90 90 90
360.0 294.0 0.7249804667887634 76 76 76
362.0 294.0 0.7284011034893221 43 43 43
364.0 294.0 0.7319008310912382 19 19 19
366.0 294.0 0.7349244798864449 14 14 14
368.0 294.0 0.7379446602577016 12 12 12
370.0 294.0 0.7413954519160436 13 13 13
418.0 294.0 0.7707597097117956 6 6 6
420.0 294.0 0.770316221030815 7 7 7
422.0 294.0 0.7696265566088387 14 14 14
424.0 294.0 0.771439852270119 76 76 76
426.0 294.0 0.7728317053579089 144 144 144
428.0 294.0 0.7741602134206562 169 169 169
430.0 294.0 0.7742235731640231 174 174 174
432.0 294.0 0.7725612295765538 179 179 179
434.0 294.0 0.7676765975438906 176 176 176
436.0 294.0 0.7627157845951918 175 175 175
438.0 294.0 0.7594006152200489 175 175 175
440.0 294.0 0.758190765306192 173 173 173
442.0 294.0 0.7606092694894306 172 172 172
444.0 294.0 0.761945250711051 168 168 168
446.0 294.0 0.7601231639284235 166 166 166
448.0 294.0 0.7613848381488124 163 163 163
450.0 294.0 0.7559997638734889 157 157 157
452.0 294.0 0.7528670724322845 153 153 153
454.0 294.0 0.7634665014745154 144 144 144
456.0 294.0 0.7512030432536431 136 136 136
458.0 294.0 0.7626714258033023 125 125 125
460.0 294.0 0.7583735699529253 117 117 117
462.0 294.0 0.7886995532156993 104 104 104
464.0 294.0 0.780087761201764 94 94 94
466.0 294.0 0.7796435916679656 77 77 77
468.0 294.0 0.7732603430127799 50 50 50
470.0 294.0 0.770373478611488 22 22 22
122.0 296.0 0.6852343770542616 11 11 11
124.0 296.0 0.6860678504314671 13 13 13
126.0 296.0 0.687149452788209 14 14 14
128.0 296.0 0.6876444695126487 15 15 15
130.0 296.0 0.6882010683906441 21 21 21
132.0 296.0 0.6884301015872166 25 25 25
134.0 296.0 0.6889332924949609 26 26 26
136.0 296.0 0.6891877366901735 27 27 27
138.0 296.0 0.6890099514066886 33 33 33
140.0 296.0 0.6892531552752247 38 38 38
142.0 296.0 0.688742978322174 39 39 39
144.0 296.0 0.6887984663870501 38 38 38
146.0 296.0 0.687892993903557 43 43 43
148.0 296.0 0.6878196932363178 39 39 39
150.0 296.0 0.6872362279552252 41 41 41
152.0 296.0 0.6864828244343404 41 41 41
154.0 296.0 0.6863705348229708 43 43 43
156.0 296.0 0.6860896556964368 43 43 43
158.0 296.0 0.686478351917244 40 40 40
160.0 296.0 0.6877524857190013 45 45 45
162.0 296.0 0.689672751954984 47 47 47
164.0 296.0 0.6946586574713816 44 44 44
166.0 296.0 0.7434411507192784 44 44 44
168.0 296.0 0.70592405736932 51 51 51
170.0 296.0 0.6818315156751127 48 48 48
172.0 296.0 0.6655390714187346 48 48 48
174.0 296.0 0.6522312651169723 45 45 45
176.0 296.0 0.6408253449780935 49 49 49
178.0 296.0 0.6306882348655348 52 52 52
180.0 296.0 0.6213216864289864 48 48 48
182.0 296.0 0.6124038459859195 48 48 48
184.0 296.0 0.6037183753765142 47 47 47
186.0 296.0 0.5954255058706712 46 46 46
188.0 296.0 0.5874092578084114 48 48 48
190.0 296.0 0.5798782681251609 46 46 46
192.0 296.0 0.5726081347046146 47 47 47
194.0 296.0 0.5657193146442362 50 50 50
196.0 296.0 0.55903081897667 47 47 47
198.0 296.0 0.5533614647991449 47 47 47
200.0 296.0 0.54739341631616 48 48 48
202.0 296.0 0.5411587201381698 50 50 50
204.0 296.0 0.5361845865249144 50 50 50
206.0 296.0 0.5305768034908678 50 50 50
208.0 296.0 0.5246423965256612 50 50 50
210.0 296.0 0.5193412213550642 48 48 48
212.0 296.0 0.5128671661242874 47 47 47
214.0 296.0 0.506784087930039 45 45 45
216.0 296.0 0.49974748965095195 44 44 44
218.0 296.0 0.49133487019909877 42 42 42
220.0 296.0 0.48198821483350435 42 42 42
222.0 296.0 0.4717953197205252 41 41 41
224.0 296.0 0.4586874244171433 44 44 44
226.0 296.0 0.4430656271744084 42 42 42
228.0 296.0 0.41852267002396937 43 43 43
230.0 296.0 0.39205005372533835 42 42 42
232.0 296.0 0.3481041053807466 43 43 43
234.0 296.0 0.2754125326578311 42 42 42
236.0 296.0 0.18895218765574306 42 42 42
238.0 296.0 0.17655235893879279 43 43 43
240.0 296.0 0.2769126334101606 40 40 40
242.0 296.0 0.37712785387084985 40 40 40
244.0 296.0 0.40804667697256924 45 45 45
246.0 296.0 0.4416637304465088 40 40 40
248.0 296.0 0.46897998678936376 44 44 44
250.0 296.0 0.48855188297185886 45 45 45
252.0 296.0 0.5044472668555191 44 44 44
254.0 296.0 0.5169280023194575 44 44 44
256.0 296.0 0.5266943385859466 46 46 46
258.0 296.0 0.5344232614255617 44 44 44
260.0 296.0 0.540529078734956 44 44 44
262.0 296.0 0.5459528969420888 43 43 43
264.0 296.0 0.5506843503967871 47 47 47
266.0 296.0 0.5547777552464568 50 50 50
268.0 296.0 0.5585649428905499 53 53 53
270.0 296.0 0.5618829345061822 52 52 52
272.0 296.0 0.5650217273695252 54 54 54
274.0 296.0 0.567597270931992 57 57 57
276.0 296.0 0.5705102301287021 59 59 59
278.0 296.0 0.5733790441052262 59 59 59
280.0 296.0 0.5761518179835632 61 61 61
282.0 296.0 0.5791621605155864 62 62 62
284.0 296.0 0.5824278762880102 60 60 60
286.0 296.0 0.5854402987856596 56 56 56
288.0 296.0 0.5891593057801385 57 57 57
290.0 296.0 0.5925838051149038 57 57 57
292.0 296.0 0.5964941669464416 54 54 54
294.0 296.0 0.6003811747856307 53 53 53
296.0 296.0 0.6044931711925059 50 50 50
298.0 296.0 0.6086048771996286 52 52 52
300.0 296.0 0.6128094956772738 52 52 52
302.0 296.0 0.6169522576857003 57 57 57
304.0 296.0 0.6211421353967569 63 63 63
306.0 296.0 0.6256685066984067 70 70 70
308.0 296.0 0.6297911336444616 98 98 98
310.0 296.0 0.6337310959937851 123 123 123
312.0 296.0 0.6376403351970257 137 137 137
314.0 296.0 0.6413606873400008 155 155 155
316.0 296.0 0.6450388173605327 161 161 161
318.0 296.0 0.6486722736522864 160 160 160
320.0 296.0 0.6522396028546882 153 153 153
322.0 296.0 0.6557889308198098 158 158 158
324.0 296.0 0.659293849930969 164 164 164
326.0 296.0 0.6627940331642721 158 158 158
328.0 296.0 0.666279836206522 163 163 163
330.0 296.0 0.6696767220015969 167 167 167
332.0 296.0 0.673186543627544 165 165 165
334.0 296.0 0.6766958678255591 160 160 160
336.0 296.0 0.6799776418565056 161 161 161
338.0 296.0 0.683390428522088 157 157 157
340.0 296.0 0.6869349629935421 147 147 147
342.0 296.0 0.6903939102829615 143 143 143
344.0 296.0 0.693839969508053 141 141 141
346.0 296.0 0.6974516218758857 135 135 135
348.0 296.0 0.7010504830515614 125 125 125
350.0 296.0 0.7048289431710657 114 114 114
352.0 296.0 0.7084039342076308 107 107 107
354.0 296.0 0.7121629579201179 100 100 100
356.0 296.0 0.7157300946206975 87 87 87
358.0 296.0 0.7192455602077662 75 75 75
360.0 296.0 0.7226636435372179 67 67 67
362.0 296.0 0.7258327677073315 56 56 56
364.0 296.0 0.7291042481050275 39 39 39
366.0 296.0 0.7319215802096961 20 20 20
368.0 296.0 0.7348512011278066 15 15 15
370.0 296.0 0.7377964278354872 14 14 14
372.0 296.0 0.7413301721132665 12 12 12
416.0 296.0 0.7684396856319659 6 6 6
418.0 296.0 0.7662924140547036 8 8 8
420.0 296.0 0.765158135930357 11 11 11
422.0 296.0 0.7635772470038036 58 58 58
424.0 296.0 0.7667913079734406 139 139 139
426.0 296.0 0.7703476548018214 169 169 169
428.0 296.0 0.7725080431878981 177 177 177
430.0 296.0 0.7765511178084741 180 180 180
432.0 296.0 0.7755774468139384 182 182 182
434.0 296.0 0.766358844968892 177 177 177
436.0 296.0 0.7569529000553257 181 181 181
438.0 296.0 0.7546053236479803 182 182 182
440.0 296.0 0.7483546927566177 177 177 177
442.0 296.0 0.7576211099730359 176 176 176
444.0 296.0 0.7677097518561947 175 175 175
446.0 296.0 0.7438534878746199 167 167 167
448.0 296.0 0.7649693010079627 165 165 165
450.0 296.0 0.7650539249572935 162 162 162
452.0 296.0 0.7078966046433215 155 155 155
454.0 296.0 0.775958824416911 147 147 147
456.0 296.0 0.7515249387522122 135 135 135
458.0 296.0 0.7677177599713148 128 128 128
460.0 296.0 0.7692405962021378 118 118 118
462.0 296.0 0.7995227780482121 106 106 106
464.0 296.0 0.7989245752437115 94 94 94
466.0 296.0 0.7920302136177501 81 81 81
468.0 296.0 0.7720805327430617 62 62 62
470.0 296.0 0.7697705769895588 35 35 35
126.0 298.0 0.6843941515632087 13 13 13
128.0 298.0 0.6846714578923565 15 15 15
130.0 298.0 0.6848676397651768 16 16 16
132.0 298.0 0.6853034653919806 18 18 18
134.0 298.0 0.68600484498075 19 19 19
136.0 298.0 0.6864402684495299 26 26 26
138.0 298.0 0.686451701487386 31 31 31
140.0 298.0 0.6868165099001522 29 29 29
142.0 298.0 0.6864310118542218 35 35 35
144.0 298.0 0.686539562110357 35 35 35
146.0 298.0 0.6857042161134899 34 34 34
148.0 298.0 0.6855921934242334 39 39 39
150.0 298.0 0.6849280058834919 38 38 38
152.0 298.0 0.6840588916788786 40 40 40
154.0 298.0 0.6838043792252927 37 37 37
156.0 298.0 0.6833112043223367 39 39 39
158.0 298.0 0.6834506658466962 42 42 42
160.0 298.0 0.6845283119451421 44 44 44
162.0 298.0 0.6869263668773019 42 42 42
164.0 298.0 0.6961218155494571 44 44 44
166.0 298.0 0.7478562034500611 45 45 45
168.0 298.0 0.6891195425029353 44 44 44
170.0 298.0 0.6767986493053166 46 46 46
172.0 298.0 0.6629882964094084 43 43 43
174.0 298.0 0.6505463568246976 46 46 46
176.0 298.0 0.6394468957309606 49 49 49
178.0 298.0 0.6293817901518338 45 45 45
180.0 298.0 0.6200037593949268 43 43 43
182.0 298.0 0.6110654230440759 45 45 45
184.0 298.0 0.6023034571753494 45 45 45
186.0 298.0 0.5938561959101204 42 42 42
188.0 298.0 0.5857692456503119 44 44 44
190.0 298.0 0.5780709913948422 46 46 46
192.0 298.0 0.5707150699887598 45 45 45
194.0 298.0 0.563764789519416 43 43 43
196.0 298.0 0.5570333173422855 44 44 44
198.0 298.0 0.5514423347192563 46 46 46
200.0 298.0 0.5454702806965371 47 47 47
202.0 298.0 0.5392844454738801 46 46 46
204.0 298.0 0.5345448192761364 48 48 48
206.0 298.0 0.5291084915447922 47 47 47
208.0 298.0 0.5234752741347672 45 45 45
210.0 298.0 0.5185823390120126 45 45 45
212.0 298.0 0.5126511904088193 45 45 45
214.0 298.0 0.5067848678437469 40 40 40
216.0 298.0 0.49995775321027563 41 41 41
218.0 298.0 0.49222686097485824 41 41 41
220.0 298.0 0.48351353735703273 43 43 43
222.0 298.0 0.4737070569815673 40 40 40
224.0 298.0 0.4614161316005371 42 42 42
226.0 298.0 0.4488765630468777 43 43 43
228.0 298.0 0.4295751896318895 40 40 40
230.0 298.0 0.39941529207071014 43 43 43
232.0 298.0 0.3607587089343926 40 40 40
234.0 298.0 0.287475965183528 41 41 41
236.0 298.0 0.16774245974886515 39 39 39
238.0 298.0 0.2550345479191653 42 42 42
240.0 298.0 0.31707556444263163 48 48 48
242.0 298.0 0.36913342583826675 45 45 45
244.0 298.0 0.40901633564135903 46 46 46
246.0 298.0 0.4380401755754803 45 45 45
248.0 298.0 0.463281352815674 46 46 46
250.0 298.0 0.48276227382169645 50 50 50
252.0 298.0 0.4980481121164434 48 48 48
254.0 298.0 0.5104163671252941 52 52 52
256.0 298.0 0.5210316258011932 52 52 52
258.0 298.0 0.5295676705971253 49 49 49
260.0 298.0 0.5363647349807641 52 52 52
262.0 298.0 0.5422934149973663 55 55 55
264.0 298.0 0.5474811956359091 58 58 58
266.0 298.0 0.552020064500777 57 57 57
268.0 298.0 0.5562241899751669 58 58 58
270.0 298.0 0.5599436489332874 60 60 60
272.0 298.0 0.5634840005471559 60 60 60
274.0 298.0 0.566357457699093 66 66 66
276.0 298.0 0.569552424074111 66 66 66
278.0 298.0 0.5726654271196395 66 66 66
280.0 298.0 0.5756568763213441 65 65 65
282.0 298.0 0.5788658900339981 65 65 65
284.0 298.0 0.5822856601478121 62 62 62
286.0 298.0 0.5854239153638161 59 59 59
288.0 298.0 0.589210028222315 59 59 59
290.0 298.0 0.5927110430735707 56 56 56
292.0 298.0 0.5966806167992181 57 57 57
294.0 298.0 0.6005848574130715 64 64 64
296.0 298.0 0.6046917402064617 94 94 94
298.0 298.0 0.6088126015404826 102 102 102
300.0 298.0 0.613034328356946 125 125 125
302.0 298.0 0.6171928936694968 147 147 147
304.0 298.0 0.6213557339804735 153 153 153
306.0 298.0 0.6257325435876223 158 158 158
308.0 298.0 0.6299693790116233 171 171 171
310.0 298.0 0.6339176258068799 174 174 174
312.0 298.0 0.6378454307468311 169 169 169
314.0 298.0 0.6415782065288189 178 178 178
316.0 298.0 0.6452334070107848 171 171 171
318.0 298.0 0.6488266374936941 170 170 170
320.0 298.0 0.6523257082212435 172 172 172
322.0 298.0 0.6558291195089262 170 170 170
324.0 298.0 0.659319820783229 167 167 167
326.0 298.0 0.6627469835834026 168 168 168
328.0 298.0 0.6661754412349247 165 165 165
330.0 298.0 0.669498273650426 166 166 166
332.0 298.0 0.6729657187909854 158 158 158
334.0 298.0 0.676486651298947 152 152 152
336.0 298.0 0.6796411977822542 169 169 169
338.0 298.0 0.682989332001772 143 143 143
340.0 298.0 0.686481110075554 139 139 139
342.0 298.0 0.6898563412629413 130 130 130
344.0 298.0 0.6931855814006386 129 129 129
346.0 298.0 0.6966777661480833 122 122 122
348.0 298.0 0.7001350722544292 114 114 114
350.0 298.0 0.7037607980121973 109 109 109
352.0 298.0 0.7071803058253413 94 94 94
354.0 298.0 0.7107327268864875 90 90 90
356.0 298.0 0.714130510794704 80 80 80
358.0 298.0 0.7174377812696162 75 75 75
360.0 298.0 0.7206113016783704 64 64 64
362.0 298.0 0.7235619820376222 52 52 52
364.0 298.0 0.7266076546951348 46 46 46
366.0 298.0 0.7292372627704389 40 40 40
368.0 298.0 0.7320183382786948 22 22 22
370.0 298.0 0.7347808496874046 16 16 16
372.0 298.0 0.7377512083437942 15 15 15
374.0 298.0 0.7414270865204357 9 9 9
414.0 298.0 0.7657762556488976 6 6 6
416.0 298.0 0.763225943390311 7 7 7
418.0 298.0 0.7603549649334799 9 9 9
420.0 298.0 0.7572113092257182 38 38 38
422.0 298.0 0.7506104930342992 125 125 125
424.0 298.0 0.7564213404879983 167 167 167
426.0 298.0 0.7670363187442203 181 181 181
428.0 298.0 0.7594708774311855 183 183 183
430.0 298.0 0.7854345649542738 189 189 189
432.0 298.0 0.7853471801490918 183 183 183
434.0 298.0 0.7622351557645671 184 184 184
436.0 298.0 0.7318803205058412 185 185 185
438.0 298.0 0.758090682910998 183 183 183
440.0 298.0 0.69981835448964 182 182 182
442.0 298.0 0.7637039326737748 178 178 178
444.0 298.0 0.7695617906717146 174 174 174
446.0 298.0 0.7398979998307729 169 169 169
448.0 298.0 0.7627322268100494 165 165 165
450.0 298.0 0.7597478306487027 166 166 166
452.0 298.0 0.7559931155761338 155 155 155
454.0 298.0 0.7673859144909614 149 149 149
456.0 298.0 0.7681548110057129 140 140 140
458.0 298.0 0.7713010102113157 129 129 129
460.0 298.0 0.7765668843310811 119 119 119
462.0 298.0 0.7858577760749473 105 105 105
464.0 298.0 0.7976692542342381 96 96 96
466.0 298.0 0.8225433216528999 81 81 81
468.0 298.0 0.7661031653283762 65 65 65
470.0 298.0 0.7717885736875966 45 45 45
132.0 300.0 0.6818604541618366 16 16 16
134.0 300.0 0.6827526836960643 18 18 18
136.0 300.0 0.6834127612284273 18 18 18
138.0 300.0 0.6836390408212887 19 19 19
140.0 300.0 0.6842049780359639 25 25 25
142.0 300.0 0.6839698995898105 26 26 26
144.0 300.0 0.6841566061432144 28 28 28
146.0 300.0 0.683392376204701 29 29 29
148.0 300.0 0.6832532576861786 33 33 33
150.0 300.0 0.6825281579339663 33 33 33
152.0 300.0 0.681545921655647 32 32 32
154.0 300.0 0.6811055523220564 37 37 37
156.0 300.0 0.6804178309569808 38 38 38
158.0 300.0 0.6803352052119971 37 37 37
160.0 300.0 0.6811091064179213 37 37 37
162.0 300.0 0.6834851114996416 41 41 41
164.0 300.0 0.6925246752192269 42 42 42
166.0 300.0 0.7324271660783195 39 39 39
168.0 300.0 0.7011582378400782 40 40 40
170.0 300.0 0.677236605020564 39 39 39
172.0 300.0 0.6620449923946572 42 42 42
174.0 300.0 0.649498517225554 44 44 44
176.0 300.0 0.6385955470766599 42 42 42
178.0 300.0 0.6286226257104708 42 42 42
180.0 300.0 0.6191165370881943 42 42 42
182.0 300.0 0.6099158686918897 43 43 43
184.0 300.0 0.6010599647115394 42 42 42
186.0 300.0 0.592487068221967 43 43 43
188.0 300.0 0.5842044465329687 43 43 43
190.0 300.0 0.5763651296408354 42 42 42
192.0 300.0 0.5688226657794498 42 42 42
194.0 300.0 0.5617100756796441 44 44 44
196.0 300.0 0.5549077474210031 44 44 44
198.0 300.0 0.5492844334855714 45 45 45
200.0 300.0 0.5433030853550994 43 43 43
202.0 300.0 0.537169363999829 44 44 44
204.0 300.0 0.5325436651400031 43 43 43
206.0 300.0 0.5274023209731612 41 41 41
208.0 300.0 0.5220754345549168 43 43 43
210.0 300.0 0.5175542244039311 42 42 42
212.0 300.0 0.512134872942758 37 37 37
214.0 300.0 0.5068946650722355 38 38 38
216.0 300.0 0.5003404796859395 38 38 38
218.0 300.0 0.4934695498403893 40 40 40
220.0 300.0 0.4849337545765994 41 41 41
222.0 300.0 0.47495418377142257 41 41 41
224.0 300.0 0.4630606378255052 42 42 42
226.0 300.0 0.45115406960195736 42 42 42
228.0 300.0 0.4343277733768539 43 43 43
230.0 300.0 0.4212120410216877 42 42 42
232.0 300.0 0.3940238512968109 43 43 43
234.0 300.0 0.3447463918008196 47 47 47
236.0 300.0 0.2724082029426293 46 46 46
238.0 300.0 0.29990251047290245 47 47 47
240.0 300.0 0.34640781223937445 48 48 48
242.0 300.0 0.37809104472283406 50 50 50
244.0 300.0 0.410664575365114 50 50 50
246.0 300.0 0.43622633381268655 53 53 53
248.0 300.0 0.4584959351074519 52 52 52
250.0 300.0 0.47765636773208775 54 54 54
252.0 300.0 0.49269958955234694 55 55 55
254.0 300.0 0.5054287157477418 55 55 55
256.0 300.0 0.5159191404526916 59 59 59
258.0 300.0 0.5249532515943642 59 59 59
260.0 300.0 0.5323598879595045 60 60 60
262.0 300.0 0.5388153767393365 64 64 64
264.0 300.0 0.5444157292151948 63 63 63
266.0 300.0 0.5493499684311045 68 68 68
268.0 300.0 0.553983763426974 68 68 68
270.0 300.0 0.5580356341811669 66 66 66
272.0 300.0 0.5619256550585349 69 69 69
274.0 300.0 0.565146521375242 70 70 70
276.0 300.0 0.5686053460221795 68 68 68
278.0 300.0 0.5719565975207468 65 65 65
280.0 300.0 0.5751806809667204 63 63 63
282.0 300.0 0.5785557992656061 61 61 61
284.0 300.0 0.5821504184977221 62 62 62
286.0 300.0 0.5854180805809918 74 74 74
288.0 300.0 0.5892775440787735 106 106 106
290.0 300.0 0.5928836596779806 117 117 117
292.0 300.0 0.5969113914127389 144 144 144
294.0 300.0 0.6008323060720959 166 166 166
296.0 300.0 0.6049439936606559 169 169 169
298.0 300.0 0.6091172296445034 167 167 167
300.0 300.0 0.6133660289411166 181 181 181
302.0 300.0 0.617552632671406 181 181 181
304.0 300.0 0.6217365750328172 185 185 185
306.0 300.0 0.6260029906558835 182 182 182
308.0 300.0 0.6301882012529813 181 181 181
310.0 300.0 0.634221082434475 181 181 181
312.0 300.0 0.6381512203888352 180 180 180
314.0 300.0 0.6418646384887194 180 180 180
316.0 300.0 0.6455628575477793 176 176 176
318.0 300.0 0.6491380494405783 175 175 175
320.0 300.0 0.6525878153911158 171 171 171
322.0 300.0 0.6560393733502452 167 167 167
324.0 300.0 0.6594763242014121 170 170 170
326.0 300.0 0.6628410924833112 163 163 163
328.0 300.0 0.6661866080491258 160 160 160
330.0 300.0 0.6694892534357041 159 159 159
332.0 300.0 0.6728749231798608 152 152 152
334.0 300.0 0.6762799385027338 151 151 151
336.0 300.0 0.6794286258510615 152 152 152
338.0 300.0 0.6826705464338042 143 143 143
340.0 300.0 0.6861216567218031 130 130 130
342.0 300.0 0.6893857123925848 127 127 127
344.0 300.0 0.6926322071584882 122 122 122
346.0 300.0 0.6960198004985502 113 113 113
348.0 300.0 0.6993674462339783 108 108 108
350.0 300.0 0.7028721057082735 97 97 97
352.0 300.0 0.7061317422981107 95 95 95
354.0 300.0 0.7095081096576813 81 81 81
356.0 300.0 0.7127244619502878 76 76 76
358.0 300.0 0.7158389392749559 70 70 70
360.0 300.0 0.718836812385589 61 61 61
362.0 300.0 0.721559566650948 53 53 53
364.0 300.0 0.7244295499885931 49 49 49
366.0 300.0 0.7268761408374899 46 46 46
368.0 300.0 0.729487419820731 39 39 39
370.0 300.0 0.7321209869270564 21 21 21
372.0 300.0 0.7349574447575207 18 18 18
374.0 300.0 0.7382086666921394 14 14 14
376.0 300.0 0.742674574622354 8 8 8
412.0 300.0 0.7634566531366372 6 6 6
414.0 300.0 0.7608138426042644 7 7 7
416.0 300.0 0.7572650435092724 8 8 8
418.0 300.0 0.7548901352311504 22 22 22
420.0 300.0 0.7514835654916724 104 104 104
422.0 300.0 0.7212125913341748 162 162 162
424.0 300.0 0.716822633474074 183 183 183
426.0 300.0 0.7690987521120394 188 188 188
428.0 300.0 0.7531154742176127 188 188 188
430.0 300.0 0.7873742218629345 188 188 188
432.0 300.0 0.7686705458862716 190 190 190
434.0 300.0 0.7465932385046392 186 186 186
436.0 300.0 0.7274606071574686 186 186 186
438.0 300.0 0.7513775717534659 186 186 186
440.0 300.0 0.74783581095234 184 184 184
442.0 300.0 0.7563857739370876 181 181 181
444.0 300.0 0.7639193585602169 177 177 177
446.0 300.0 0.760724105431783 171 171 171
448.0 300.0 0.7630862716396831 166 166 166
450.0 300.0 0.7645762645722961 163 163 163
452.0 300.0 0.7658370282933971 150 150 150
454.0 300.0 0.7693177242341581 147 147 147
456.0 300.0 0.7718246212050924 135 135 135
458.0 300.0 0.7749085896999759 127 127 127
460.0 300.0 0.7787816059898266 116 116 116
462.0 300.0 0.7843282814632612 106 106 106
464.0 300.0 0.789615188870053 94 94 94
466.0 300.0 0.7936875562010149 81 81 81
468.0 300.0 0.8090454233033626 65 65 65
470.0 300.0 0.77386517167612 48 48 48
134.0 302.0 0.6799008671476681 16 16 16
136.0 302.0 0.6807670416140686 17 17 17
138.0 302.0 0.6813137594782406 18 18 18
140.0 302.0 0.6821504325634741 19 19 19
142.0 302.0 0.6821865512985011 20 20 20
144.0 302.0 0.6825553523730586 21 21 21
146.0 302.0 0.681959922838558 25 25 25
148.0 302.0 0.6818884967307876 24 24 24
150.0 302.0 0.6812002257178714 25 25 25
152.0 302.0 0.6802317104739918 28 28 28
154.0 302.0 0.6797898665853879 31 31 31
156.0 302.0 0.6791451716134594 29 29 29
158.0 302.0 0.6792059357315405 32 32 32
160.0 302.0 0.6799739352278311 36 36 36
162.0 302.0 0.6818955539338792 35 35 35
164.0 302.0 0.6868651888103126 33 33 33
166.0 302.0 0.7275560229649365 36 36 36
168.0 302.0 0.6987775977875252 38 38 38
170.0 302.0 0.6732659595687451 40 40 40
172.0 302.0 0.6585724100538277 41 41 41
174.0 302.0 0.6468355939142874 38 38 38
176.0 302.0 0.6363754651124521 38 38 38
178.0 302.0 0.6266522733142768 39 39 39
180.0 302.0 0.6173253149160199 38 38 38
182.0 302.0 0.6081699339884346 42 42 42
184.0 302.0 0.5991859274153338 42 42 42
186.0 302.0 0.5903873551898077 38 38 38
188.0 302.0 0.5819738462278974 39 39 39
190.0 302.0 0.573945705494904 39 39 39
192.0 302.0 0.5662281251543856 39 39 39
194.0 302.0 0.5589670198668929 39 39 39
196.0 302.0 0.5519981002023918 39 39 39
198.0 302.0 0.5464201826381027 43 43 43
200.0 302.0 0.5403871839533462 40 40 40
202.0 302.0 0.5343754730585591 40 40 40
204.0 302.0 0.5299144788958234 40 40 40
206.0 302.0 0.525095885211562 43 43 43
208.0 302.0 0.5201584569037138 41 41 41
210.0 302.0 0.5161834877933311 38 38 38
212.0 302.0 0.5113649092435455 36 36 36
214.0 302.0 0.5066607327436209 39 39 39
216.0 302.0 0.5005565989386658 39 39 39
218.0 302.0 0.4943463920146578 42 42 42
220.0 302.0 0.48662906024865116 44 44 44
222.0 302.0 0.47739572683720494 46 46 46
224.0 302.0 0.46564229677407176 43 43 43
226.0 302.0 0.4548826491494166 45 45 45
228.0 302.0 0.4330360498138343 47 47 47
230.0 302.0 0.41835106934757227 47 47 47
232.0 302.0 0.3761999317634298 50 50 50
234.0 302.0 0.3643295838795179 48 48 48
236.0 302.0 0.3563426684243555 50 50 50
238.0 302.0 0.35188468132562706 52 52 52
240.0 302.0 0.3713069328766957 53 53 53
242.0 302.0 0.39350096207842133 51 51 51
244.0 302.0 0.4167285138995847 54 54 54
246.0 302.0 0.438084694661813 53 53 53
248.0 302.0 0.4575305443703387 57 57 57
250.0 302.0 0.47460787817034883 59 59 59
252.0 302.0 0.48918197806108704 60 60 60
254.0 302.0 0.5014942173938509 63 63 63
256.0 302.0 0.5119231348517009 65 65 65
258.0 302.0 0.5210022513292168 64 64 64
260.0 302.0 0.5287850016569566 68 68 68
262.0 302.0 0.5355454661980036 70 70 70
264.0 302.0 0.5414843708827205 71 71 71
266.0 302.0 0.5467534331782696 67 67 67
268.0 302.0 0.5517439111589357 71 71 71
270.0 302.0 0.556099036190978 75 75 75
272.0 302.0 0.5602767507859765 72 72 72
274.0 302.0 0.563783574815918 79 79 79
276.0 302.0 0.5675038983076214 85 85 85
278.0 302.0 0.571085809171547 95 95 95
280.0 302.0 0.5745144875586728 115 115 115
282.0 302.0 0.5780698129629078 144 144 144
284.0 302.0 0.5818245202194939 157 157 157
286.0 302.0 0.585220134952464 179 179 179
288.0 302.0 0.5891676672822799 179 179 179
290.0 302.0 0.5928319875369903 187 187 187
292.0 302.0 0.5969017768820345 192 192 192
294.0 302.0 0.6008742420535825 190 190 190
296.0 302.0 0.6050157978431051 190 190 190
298.0 302.0 0.6092013870137586 186 186 186
300.0 302.0 0.6134349559123955 185 185 185
302.0 302.0 0.6177077465410385 184 184 184
304.0 302.0 0.6219195657305833 187 187 187
306.0 302.0 0.6261333485179755 185 185 185
308.0 302.0 0.6303402712061961 182 182 182
310.0 302.0 0.6343757800962532 179 179 179
312.0 302.0 0.6383456430994993 180 180 180
314.0 302.0 0.6420828350713389 176 176 176
316.0 302.0 0.6457475256085827 171 171 171
318.0 302.0 0.6493079720370256 169 169 169
320.0 302.0 0.6527410640008012 167 167 167
322.0 302.0 0.6561291157735609 165 165 165
324.0 302.0 0.6594938244122234 161 161 161
326.0 302.0 0.6627915712956594 158 158 158
328.0 302.0 0.6660826137742668 158 158 158
330.0 302.0 0.6692694356447689 151 151 151
332.0 302.0 0.6726059918538854 143 143 143
334.0 302.0 0.6758845563177197 143 143 143
336.0 302.0 0.6789994528529643 134 134 134
338.0 302.0 0.6822274958725396 130 130 130
340.0 302.0 0.6855855204026502 129 129 129
342.0 302.0 0.6887391959139056 124 124 124
344.0 302.0 0.6919226291991009 114 114 114
346.0 302.0 0.6952215091698979 105 105 105
348.0 302.0 0.6984807420126208 97 97 97
350.0 302.0 0.7018398689489914 91 91 91
352.0 302.0 0.7049478005481302 83 83 83
354.0 302.0 0.7081788630294575 74 74 74
356.0 302.0 0.7111764272397549 76 76 76
358.0 302.0 0.7141348405622836 61 61 61
360.0 302.0 0.7169533095098509 60 60 60
362.0 302.0 0.719483459888155 57 57 57
364.0 302.0 0.7221718091473575 46 46 46
366.0 302.0 0.7244277355534327 44 44 44
368.0 302.0 0.7268765085937713 42 42 42
370.0 302.0 0.729369876746357 35 35 35
372.0 302.0 0.732040774223802 21 21 21
374.0 302.0 0.7351050787232207 19 19 19
376.0 302.0 0.7392443763008618 10 10 10
410.0 302.0 0.759641479259966 6 6 6
412.0 302.0 0.7580915450187165 7 7 7
414.0 302.0 0.7544566363742348 8 8 8
416.0 302.0 0.7459588900138103 14 14 14
418.0 302.0 0.7464652594070472 77 77 77
420.0 302.0 0.7091293517403956 155 155 155
422.0 302.0 0.7257528385031319 182 182 182
424.0 302.0 0.750338449681569 185 185 185
426.0 302.0 0.763341813806198 189 189 189
428.0 302.0 0.7658057461325769 190 190 190
430.0 302.0 0.7705185207035449 190 190 190
432.0 302.0 0.7657993104547702 191 191 191
434.0 302.0 0.7579879688274158 189 189 189
436.0 302.0 0.7526698415315519 189 189 189
438.0 302.0 0.7545054194863244 187 187 187
440.0 302.0 0.7566090654968368 184 184 184
442.0 302.0 0.7591837024451701 176 176 176
444.0 302.0 0.762602558934612 175 175 175
446.0 302.0 0.7634554369871228 174 174 174
448.0 302.0 0.7651928429429979 168 168 168
450.0 302.0 0.7668203422509571 162 162 162
452.0 302.0 0.7684994978240529 152 152 152
454.0 302.0 0.7706430711205354 143 143 143
456.0 302.0 0.772664094794763 134 134 134
458.0 302.0 0.7750790423252698 123 123 123
460.0 302.0 0.777432476876647 112 112 112
462.0 302.0 0.7802184877154215 101 101 101
464.0 302.0 0.7818121447054984 91 91 91
466.0 302.0 0.7830589287951982 78 78 78
468.0 302.0 0.7915735363382594 61 61 61
470.0 302.0 0.7964388720271407 45 45 45
136.0 304.0 0.6773607534139457 17 17 17
138.0 304.0 0.6782865040161852 18 18 18
140.0 304.0 0.679508856362552 19 19 19
142.0 304.0 0.6798464947844203 19 19 19
144.0 304.0 0.6804141956641806 21 21 21
146.0 304.0 0.6799891997043152 20 20 20
148.0 304.0 0.6799585014058184 21 21 21
150.0 304.0 0.6792554749695338 21 21 21
152.0 304.0 0.6782564530586973 24 24 24
154.0 304.0 0.6777091406868403 24 24 24
156.0 304.0 0.6769782947496417 27 27 27
158.0 304.0 0.677010838896734 30 30 30
160.0 304.0 0.6778641686094751 28 28 28
162.0 304.0 0.6799966910083093 30 30 30
164.0 304.0 0.6837532782017268 31 31 31
166.0 304.0 0.6948253941576457 34 34 34
168.0 304.0 0.6851045715816875 30 30 30
170.0 304.0 0.6680990756441942 36 36 36
172.0 304.0 0.6555064216822992 33 33 33
174.0 304.0 0.6445933569373159 36 36 36
176.0 304.0 0.6345001273333141 36 36 36
178.0 304.0 0.624985488718588 37 37 37
180.0 304.0 0.6155375499025041 40 40 40
182.0 304.0 0.6063025746592947 36 36 36
184.0 304.0 0.5971034815703544 34 34 34
186.0 304.0 0.5881153016058119 36 36 36
188.0 304.0 0.5793448916220904 39 39 39
190.0 304.0 0.5709962191482715 35 35 35
192.0 304.0 0.5629192280404053 38 38 38
194.0 304.0 0.5554153932535422 40 40 40
196.0 304.0 0.548234337308232 40 40 40
198.0 304.0 0.542580870139047 40 40 40
200.0 304.0 0.5363944456400459 41 41 41
202.0 304.0 0.5304215633126548 42 42 42
204.0 304.0 0.5261975746032604 41 41 41
206.0 304.0 0.521567370761909 42 42 42
208.0 304.0 0.5169888827597908 40 40 40
210.0 304.0 0.5136375093701022 41 41 41
212.0 304.0 0.5093654335309238 44 44 44
214.0 304.0 0.5051962833890208 45 45 45
216.0 304.0 0.4998077680351409 46 46 46
218.0 304.0 0.4942659516360083 46 46 46
220.0 304.0 0.4872402327817283 44 44 44
222.0 304.0 0.4775686484709855 43 43 43
224.0 304.0 0.4658008940476913 49 49 49
226.0 304.0 0.45582022929226207 50 50 50
228.0 304.0 0.41962421042160636 52 52 52
230.0 304.0 0.41606668672360847 51 51 51
232.0 304.0 0.38046533123326254 49 49 49
234.0 304.0 0.3805035817868142 51 51 51
236.0 304.0 0.3842808119252963 54 54 54
238.0 304.0 0.38425531069016333 55 55 55
240.0 304.0 0.3955397348869618 56 56 56
242.0 304.0 0.41041296471521793 55 55 55
244.0 304.0 0.4270145866726655 59 59 59
246.0 304.0 0.44429608916252217 62 62 62
248.0 304.0 0.4603593839942413 62 62 62
250.0 304.0 0.47515374440906744 63 63 63
252.0 304.0 0.4882793228145066 68 68 68
254.0 304.0 0.49992990789102615 70 70 70
256.0 304.0 0.5100372241129001 71 71 71
258.0 304.0 0.5189267515227662 70 70 70
260.0 304.0 0.5266782678805879 75 75 75
262.0 304.0 0.5335802783379368 75 75 75
264.0 304.0 0.5396985484154786 75 75 75
266.0 304.0 0.5451653275187125 86 86 86
268.0 304.0 0.5503561178836371 97 97 97
270.0 304.0 0.5549366540419151 123 123 123
272.0 304.0 0.5593118127299045 147 147 147
274.0 304.0 0.5630258550622764 156 156 156
276.0 304.0 0.5669294155868423 169 169 169
278.0 304.0 0.5706739105202978 179 179 179
280.0 304.0 0.5742558027297257 191 191 191
282.0 304.0 0.5779365379993839 197 197 197
284.0 304.0 0.581819545488025 198 198 198
286.0 304.0 0.585325886221873 202 202 202
288.0 304.0 0.5893444615434168 202 202 202
290.0 304.0 0.5930184169692752 198 198 198
292.0 304.0 0.5971398640010571 182 182 182
294.0 304.0 0.6011177529654224 195 195 195
296.0 304.0 0.605298224840296 186 186 186
298.0 304.0 0.6094533395216987 188 188 188
300.0 304.0 0.6137308698272338 187 187 187
302.0 304.0 0.6180267799560679 185 185 185
304.0 304.0 0.6222749646432809 180 180 180
306.0 304.0 0.6265020447532442 181 181 181
308.0 304.0 0.6307276473003604 179 179 179
310.0 304.0 0.6347746380733056 171 171 171
312.0 304.0 0.6387697788303202 175 175 175
314.0 304.0 0.6425317831334664 166 166 166
316.0 304.0 0.6461412811688103 173 173 173
318.0 304.0 0.6496919781190215 165 165 165
320.0 304.0 0.653091012502484 160 160 160
322.0 304.0 0.6564129410082595 157 157 157
324.0 304.0 0.6596651508751422 153 153 153
326.0 304.0 0.6628948598653096 155 155 155
328.0 304.0 0.6660861682190045 144 144 144
330.0 304.0 0.6692107514395874 139 139 139
332.0 304.0 0.6723999165585898 140 140 140
334.0 304.0 0.6755992411199404 133 133 133
336.0 304.0 0.6786337868014688 122 122 122
338.0 304.0 0.6818564239865994 120 120 120
340.0 304.0 0.68510129807783 108 108 108
342.0 304.0 0.688198604750437 108 108 108
344.0 304.0 0.6913043869483797 103 103 103
346.0 304.0 0.694497124931381 95 95 95
348.0 304.0 0.6976456193099898 90 90 90
350.0 304.0 0.7008680040376976 86 86 86
352.0 304.0 0.7038147072123706 84 84 84
354.0 304.0 0.706876113058148 69 69 69
356.0 304.0 0.7096798083150601 66 66 66
358.0 304.0 0.7124848182759977 61 61 61
360.0 304.0 0.7151136234564879 59 59 59
362.0 304.0 0.7174692728306235 55 55 55
364.0 304.0 0.7199767352373997 50 50 50
366.0 304.0 0.7220279128278281 42 42 42
368.0 304.0 0.7242818224156466 40 40 40
370.0 304.0 0.7265610459110696 33 33 33
372.0 304.0 0.7289951346168588 25 25 25
374.0 304.0 0.7317159147265111 19 19 19
376.0 304.0 0.7350877518811493 11 11 11
378.0 304.0 0.7400046070957125 7 7 7
408.0 304.0 0.7554346637523052 7 7 7
410.0 304.0 0.7512952893046128 7 7 7
412.0 304.0 0.7459097998419296 8 8 8
414.0 304.0 0.7439505876784568 10 10 10
416.0 304.0 0.7119963615328716 50 50 50
418.0 304.0 0.7397612351035636 142 142 142
420.0 304.0 0.7440280332531296 178 178 178
422.0 304.0 0.7493346893291024 188 188 188
424.0 304.0 0.7569911899096357 191 191 191
426.0 304.0 0.7637805171218969 193 193 193
428.0 304.0 0.7668379582621687 193 193 193
430.0 304.0 0.7687849008879996 191 191 191
432.0 304.0 0.7664334562902739 191 191 191
434.0 304.0 0.7636351897633048 189 189 189
436.0 304.0 0.7612727519476357 190 190 190
438.0 304.0 0.7613615369554239 186 186 186
440.0 304.0 0.7622742455639466 182 182 182
442.0 304.0 0.763393285296326 184 184 184
444.0 304.0 0.7652998181349443 178 178 178
446.0 304.0 0.7667492357427277 170 170 170
448.0 304.0 0.7685490288109903 164 164 164
450.0 304.0 0.7703537480301789 162 162 162
452.0 304.0 0.7721433264815755 150 150 150
454.0 304.0 0.7740207604264874 143 143 143
456.0 304.0 0.775847011196904 133 133 133
458.0 304.0 0.7778943081763308 124 124 124
460.0 304.0 0.7797083969832188 114 114 114
462.0 304.0 0.7816930383238709 97 97 97
464.0 304.0 0.7828827914835695 85 85 85
466.0 304.0 0.7839692725351585 72 72 72
468.0 304.0 0.7847537865977421 59 59 59
470.0 304.0 0.7993932143976523 44 44 44
138.0 306.0 0.6744549264917652 17 17 17
140.0 306.0 0.6762948652933383 19 19 19
142.0 306.0 0.6770888972706238 20 20 20
144.0 306.0 0.6779086419349187 20 20 20
146.0 306.0 0.6776516373047657 21 21 21
148.0 306.0 0.6776181586084019 21 21 21
150.0 306.0 0.6768383142133101 23 23 23
152.0 306.0 0.675667738927097 23 23 23
154.0 306.0 0.6748622962359858 23 23 23
156.0 306.0 0.6737420898873256 24 24 24
158.0 306.0 0.6733919199382814 24 24 24
160.0 306.0 0.6738052105100777 25 25 25
162.0 306.0 0.6763284997525049 27 27 27
164.0 306.0 0.689530352236282 27 27 27
166.0 306.0 0.719340338794786 28 28 28
168.0 306.0 0.6783220918334996 32 32 32
170.0 306.0 0.6667885978532456 30 30 30
172.0 306.0 0.655398213014792 31 31 31
174.0 306.0 0.6448552781193271 33 33 33
176.0 306.0 0.6347062663464721 35 35 35
178.0 306.0 0.625057983185627 36 36 36
180.0 306.0 0.6155125995521225 34 34 34
182.0 306.0 0.6060194017781947 36 36 36
184.0 306.0 0.5965101626174639 35 35 35
186.0 306.0 0.5871139920526524 35 35 35
188.0 306.0 0.5779861136824113 36 36 36
190.0 306.0 0.5692004729952986 38 38 38
192.0 306.0 0.5606590914676559 39 39 39
194.0 306.0 0.5527555335005889 39 39 39
196.0 306.0 0.5452315961726768 41 41 41
198.0 306.0 0.539484794856924 41 41 41
200.0 306.0 0.5332268189566435 42 42 42
202.0 306.0 0.5273352402429052 42 42 42
204.0 306.0 0.5233613797699899 40 40 40
206.0 306.0 0.519005179327493 43 43 43
208.0 306.0 0.5148967628921993 47 47 47
210.0 306.0 0.5126019927894148 47 47 47
212.0 306.0 0.5095309000727644 45 45 45
214.0 306.0 0.5061774928723488 47 47 47
216.0 306.0 0.5014378300847865 46 46 46
218.0 306.0 0.4976082329319211 44 44 44
220.0 306.0 0.4912736782053469 47 47 47
222.0 306.0 0.48160625588716166 52 52 52
224.0 306.0 0.47220048928146274 55 55 55
226.0 306.0 0.47909361390068333 52 52 52
228.0 306.0 0.4197723239627664 56 56 56
230.0 306.0 0.4182947879382139 57 57 57
232.0 306.0 0.40782940765370335 56 56 56
234.0 306.0 0.40015895348915836 55 55 55
236.0 306.0 0.40258361484046196 61 61 61
238.0 306.0 0.40368818118206784 62 62 62
240.0 306.0 0.41207909309414426 61 61 61
242.0 306.0 0.4236103966912713 64 64 64
244.0 306.0 0.43623583807656424 65 65 65
246.0 306.0 0.45007958305713147 66 66 66
248.0 306.0 0.4636700233440633 66 66 66
250.0 306.0 0.4765752288419466 69 69 69
252.0 306.0 0.48829028246910616 70 70 70
254.0 306.0 0.49902583693126984 71 71 71
256.0 306.0 0.5086504876993979 73 73 73
258.0 306.0 0.5173150218059535 92 92 92
260.0 306.0 0.524908267392317 112 112 112
262.0 306.0 0.531801187090678 140 140 140
264.0 306.0 0.53799682350195 160 160 160
266.0 306.0 0.5435823976582805 169 169 169
268.0 306.0 0.548905765889313 186 186 186
270.0 306.0 0.5536399983867636 196 196 196
272.0 306.0 0.5581517144688023 199 199 199
274.0 306.0 0.5620404091762464 207 207 207
276.0 306.0 0.5660741024359315 213 213 213
278.0 306.0 0.5699630805533877 206 206 206
280.0 306.0 0.573685547400073 205 205 205
282.0 306.0 0.5774798019019887 207 207 207
284.0 306.0 0.5814572464822337 198 198 198
286.0 306.0 0.5850798313183715 197 197 197
288.0 306.0 0.5891896848673203 194 194 194
290.0 306.0 0.5929314286107638 196 196 196
292.0 306.0 0.5970851101226977 195 195 195
294.0 306.0 0.6011393414407477 187 187 187
296.0 306.0 0.605384983099022 186 186 186
298.0 306.0 0.6095613996771475 184 184 184
300.0 306.0 0.6138539538261698 184 184 184
302.0 306.0 0.6182012579188481 178 178 178
304.0 306.0 0.6224944953056698 181 181 181
306.0 306.0 0.6267757937817351 176 176 176
308.0 306.0 0.6310346202759639 177 177 177
310.0 306.0 0.6351253613302928 171 171 171
312.0 306.0 0.6390692967738439 173 173 173
314.0 306.0 0.6428657852681919 165 165 165
316.0 306.0 0.6464893975904217 163 163 163
318.0 306.0 0.6500110163920365 159 159 159
320.0 306.0 0.6533624834632777 154 154 154
322.0 306.0 0.656617992301407 153 153 153
324.0 306.0 0.6598318626669171 153 153 153
326.0 306.0 0.6629732968653108 137 137 137
328.0 306.0 0.6661118991118684 139 139 139
330.0 306.0 0.6691267520805998 134 134 134
332.0 306.0 0.6722042072995419 131 131 131
334.0 306.0 0.6753464260242314 124 124 124
336.0 306.0 0.678300384425725 119 119 119
338.0 306.0 0.6814951673517061 109 109 109
340.0 306.0 0.6846659265890187 108 108 108
342.0 306.0 0.6877172956443305 104 104 104
344.0 306.0 0.6907515351980997 99 99 99
346.0 306.0 0.693847678435927 93 93 93
348.0 306.0 0.6968850330310538 89 89 89
350.0 306.0 0.6999839890500393 81 81 81
352.0 306.0 0.702795189394424 73 73 73
354.0 306.0 0.7056906021039843 68 68 68
356.0 306.0 0.7083799875109724 61 61 61
358.0 306.0 0.7110379568454324 58 58 58
360.0 306.0 0.7135100663916737 52 52 52
362.0 306.0 0.7157234691380876 53 53 53
364.0 306.0 0.7180862010865044 43 43 43
366.0 306.0 0.7199413280513939 39 39 39
368.0 306.0 0.721982276729043 37 37 37
370.0 306.0 0.7240140729359583 31 31 31
372.0 306.0 0.7261787335912603 22 22 22
374.0 306.0 0.7285528963868335 17 17 17
376.0 306.0 0.7316026083641731 13 13 13
378.0 306.0 0.7366903162403796 7 7 7
406.0 306.0 0.7538542975135571 7 7 7
408.0 306.0 0.7492825989072411 8 8 8
410.0 306.0 0.7448067557502428 8 8 8
412.0 306.0 0.726778979450862 9 9 9
414.0 306.0 0.7191777091140887 31 31 31
416.0 306.0 0.728547932945842 120 120 120
418.0 306.0 0.7429730860925003 173 173 173
420.0 306.0 0.7497285302139599 187 187 187
422.0 306.0 0.7548502587452361 192 192 192
424.0 306.0 0.7588514950227758 194 194 194
426.0 306.0 0.7628617713641683 193 193 193
428.0 306.0 0.7652620158259081 195 195 195
430.0 306.0 0.7668644294879247 195 195 195
432.0 306.0 0.7659655692474269 193 193 193
434.0 306.0 0.7649278259977639 189 189 189
436.0 306.0 0.7639105227133562 192 192 192
438.0 306.0 0.7640461477868702 185 185 185
440.0 306.0 0.7645069613583982 182 182 182
442.0 306.0 0.7652111555805603 180 180 180
444.0 306.0 0.7665940799269035 176 176 176
446.0 306.0 0.7679917022301415 173 173 173
448.0 306.0 0.7698376086740333 161 161 161
450.0 306.0 0.7716864655002044 154 154 154
452.0 306.0 0.77346867074708 150 150 150
454.0 306.0 0.7752580031036858 139 139 139
456.0 306.0 0.7768692291693391 127 127 127
458.0 306.0 0.7785497387247808 118 118 118
460.0 306.0 0.7799322164406469 107 107 107
462.0 306.0 0.7813945247581291 93 93 93
464.0 306.0 0.7822701486784319 81 81 81
466.0 306.0 0.7832312903498627 69 69 69
468.0 306.0 0.7853293093116809 55 55 55
470.0 306.0 0.7992964048656344 40 40 40
140.0 308.0 0.6730464151812042 15 15 15
142.0 308.0 0.6745196210855167 18 18 18
144.0 308.0 0.6759494946249759 21 21 21
146.0 308.0 0.6760987322209155 22 22 22
148.0 308.0 0.6762282936104023 23 23 23
150.0 308.0 0.6755165054789133 24 24 24
152.0 308.0 0.6743437621076902 24 24 24
154.0 308.0 0.6734976394214457 26 26 26
156.0 308.0 0.6722667510179574 25 25 25
158.0 308.0 0.6718301028628044 27 27 27
160.0 308.0 0.6719601399292082 27 27 27
162.0 308.0 0.6740192502888694 27 27 27
164.0 308.0 0.6775382564725008 29 29 29
166.0 308.0 0.7227155751335655 30 30 30
168.0 308.0 0.6787319361909814 31 31 31
170.0 308.0 0.6636701383384692 30 30 30
172.0 308.0 0.6527124122958275 31 31 31
174.0 308.0 0.6426713848886889 33 33 33
176.0 308.0 0.6330114651645714 35 35 35
178.0 308.0 0.6234505702443169 36 36 36
180.0 308.0 0.6139449552148827 37 37 37
182.0 308.0 0.6043446080943677 38 38 38
184.0 308.0 0.5946485503327669 37 37 37
186.0 308.0 0.5849850447693243 37 37 37
188.0 308.0 0.5753703959355091 38 38 38
190.0 308.0 0.5661219248450533 40 40 40
192.0 308.0 0.5570587338414033 40 40 40
194.0 308.0 0.548632345820179 42 42 42
196.0 308.0 0.5407220760066331 43 43 43
198.0 308.0 0.5348863766629112 43 43 43
200.0 308.0 0.528401409100644 46 46 46
202.0 308.0 0.5226500790427654 44 44 44
204.0 308.0 0.5191618704163491 48 48 48
206.0 308.0 0.5150278068377999 50 50 50
208.0 308.0 0.5113928577154071 48 48 48
210.0 308.0 0.5104486195253569 49 49 49
212.0 308.0 0.5089866190508804 50 50 50
214.0 308.0 0.506503468654657 51 51 51
216.0 308.0 0.5026009499327174 51 51 51
218.0 308.0 0.5027817231504063 51 51 51
220.0 308.0 0.4956295978710565 55 55 55
222.0 308.0 0.49689401895116403 57 57 57
224.0 308.0 0.4567998788601895 59 59 59
226.0 308.0 0.4454722646770925 58 58 58
228.0 308.0 0.4442739369535739 59 59 59
230.0 308.0 0.4281214947922572 60 60 60
232.0 308.0 0.422818283140967 61 61 61
234.0 308.0 0.41815994068323353 63 63 63
236.0 308.0 0.4196634515620704 59 59 59
238.0 308.0 0.42065653482863447 66 66 66
240.0 308.0 0.4270108632008886 66 66 66
242.0 308.0 0.4359379050679029 71 71 71
244.0 308.0 0.4460055021915588 77 77 77
246.0 308.0 0.4571400433749492 79 79 79
248.0 308.0 0.4685572179131009 92 92 92
250.0 308.0 0.4796654463884214 107 107 107
252.0 308.0 0.4900290434087477 129 129 129
254.0 308.0 0.4998081840609926 154 154 154
256.0 308.0 0.5087737165549775 186 186 186
258.0 308.0 0.5169738759633822 191 191 191
260.0 308.0 0.5242712093410468 193 193 193
262.0 308.0 0.5309873947054978 209 209 209
264.0 308.0 0.5371066056781334 211 211 211
266.0 308.0 0.5426643743564359 206 206 206
268.0 308.0 0.5479889894404286 216 216 216
270.0 308.0 0.5527780521329735 207 207 207
272.0 308.0 0.5573595247949156 213 213 213
274.0 308.0 0.5613339864385392 209 209 209
276.0 308.0 0.5654558242260885 208 208 208
278.0 308.0 0.5694122458050144 202 202 202
280.0 308.0 0.5732359668342445 198 198 198
282.0 308.0 0.5771595437819774 197 197 197
284.0 308.0 0.5812080408100759 198 198 198
286.0 308.0 0.5849176577254886 193 193 193
288.0 308.0 0.589124479241808 188 188 188
290.0 308.0 0.5929695225719389 187 187 187
292.0 308.0 0.5971802591993673 190 190 190
294.0 308.0 0.6012707671866748 188 188 188
296.0 308.0 0.605564533802971 181 181 181
